ply
format ascii 1.0
element vertex 678
property float x
property float y
property float z
property uchar diffuse_red
property uchar diffuse_green
property uchar diffuse_blue
property uchar views
end_header
-31.220517136852223 -18.17613369385923 162.84953617114508 177 170 178 3
20.332917396430314 27.28435643033675 162.89544882243464 59 72 31 3
19.48704372688548 -46.024700556853034 157.69399800088576 45 38 56 2
-6.1594765459345515 5.025164146169325 163.36983790399424 168 169 189 3
11.284106520316216 -19.517140549871083 161.4521400196697 51 55 83 5
10.949475106830343 -21.967217739861656 161.3306929048127 63 69 100 5
-1.1750838759370361 -37.5746034829601 160.70256661709777 204 199 204 2
42.703386750370086 11.78823898530314 161.19408834671813 78 88 46 3
16.646383925391603 -17.19656342757176 161.48261459638368 82 85 112 5
-37.98432538936413 -12.83180259351091 163.32263455521098 136 157 98 2
9.272715238094799 -6.06835732697275 162.50141957642933 34 51 30 2
6.050654096657215 1.5488254970682223 162.84887538747878 52 56 87 2
1.1674198101855144 -8.312052335786833 162.70026893005334 33 52 25 2
-24.53891235917536 -11.597197286416987 163.02458004857064 164 160 177 2
32.41568502097292 -10.574757529749965 161.3897681007816 192 180 201 2
29.97809149828737 -47.85292191546843 157.31485547229107 178 169 186 2
27.61845680574483 -14.414351747765073 161.450709662504 72 77 96 2
44.17411807099896 -12.960877095253064 160.59374049769485 25 30 57 2
9.474479512261308 3.4680904933706738 162.7426118228358 131 138 173 2
-19.26714935958493 -32.32353770924665 162.18831565896537 70 93 25 2
-6.791035965451689 2.7398954111621907 163.33676524433008 184 178 180 2
-23.71507610468815 -11.47625919874996 163.04434228692693 165 162 174 3
6.901763167059483 -22.717400469760587 161.3671034321926 62 62 106 2
28.682947359292235 25.874793889200006 162.40049079400086 74 86 46 2
-2.2754007432393077 -52.65728145160381 158.0995612518476 143 158 175 2
-7.14656232002065 3.368097302907589 163.37615693746835 116 113 134 2
32.90976249842151 -3.246476743766658 161.53791581377897 116 133 89 2
-29.927931115340712 -24.457633315109963 162.76579832077235 156 154 174 3
6.926375867643437 3.9663337581490308 162.92163899439265 47 49 90 7
45.194550200635085 -35.71967404546795 157.83275757109342 208 189 191 2
28.288010202213908 -48.52801196775171 157.4470398687978 168 159 176 2
26.042068975475356 35.41489172306827 162.42654032176122 48 55 98 2
25.78784980806394 37.75854132957252 162.3678308746543 44 50 84 2
-18.69116544932601 -20.161374360367578 162.93463572868953 33 38 48 3
17.636329003109626 -4.135804586487969 162.4900477984112 40 40 47 2
-4.789439893935896 -33.18378875608281 161.043499193126 212 200 204 2
28.046122418614274 16.045612130333055 162.40751833306695 113 130 49 2
16.653378681110038 15.355051043619289 163.14886054975133 125 139 79 2
13.38795720240956 4.030564035916968 162.59478589670707 107 104 113 5
-33.1612628830311 -18.863530072356944 162.74464155919074 140 145 114 2
19.058617180641733 18.142300596829237 162.9031659768308 91 91 102 5
11.567806062119159 2.4428184836197464 162.65641816389135 48 54 106 2
-7.040899792280205 -15.06877441955342 161.60598914397573 92 94 47 2
13.958185396843616 -17.78974305613401 161.4869038969471 194 190 204 2
0.6110910471748835 -43.55649202151109 158.6884856443322 171 155 188 2
30.502684486459653 -14.614754949321076 161.25800219755027 127 125 138 2
39.565320499373044 -13.315893576372616 160.77027260031437 209 199 212 2
33.411236157725774 -11.775852548605831 161.26402475190042 112 115 150 3
21.028784160313176 15.748548409637493 162.75452417132118 240 234 234 2
3.6480470285639104 -42.99513113401222 158.64955639681637 133 115 129 4
40.17729232369135 -12.810232928657685 160.75739369604267 74 74 105 2
32.449514673615006 -9.845974383263687 161.39391019107237 81 76 81 3
-4.352805933902543 5.529985758309048 163.38177548886196 102 100 122 4
13.413721719880225 22.436849996556212 163.05859148387424 87 97 121 2
-2.8152555160090365 -4.2996601867796365 162.80432535045526 60 79 35 4
10.878337794318607 0.20074007222971985 162.68153021408398 108 115 141 2
-20.027346266720976 -7.840465043232712 163.1373952707224 49 65 117 4
-8.587458795821222 2.4026235033379955 163.38548942587283 102 102 125 2
13.611500080580845 22.367915638250757 163.08164497132518 70 71 76 3
22.4222397259846 16.92011421823729 162.72200424889132 81 77 77 4
17.446226103673794 -18.24005568030568 161.37363177354283 76 77 107 5
-15.712908374334816 -5.056789910508241 163.19398010579735 127 124 145 5
24.668947029701787 29.012839880598797 162.6267835822974 144 156 84 5
-6.671217259400568 -17.01000955799877 161.56129422924724 65 64 28 2
-40.04242725622032 -26.887638767628555 162.3799951752679 35 38 67 2
13.111237414382156 8.831276755869318 163.06578655133896 144 158 112 4
14.493070807710001 4.053947833779532 162.56433530748407 88 94 113 3
15.663637589587712 -19.811780772223273 161.3011955755387 183 181 196 3
-16.974356079448498 -6.454776571981675 163.19140655885653 127 126 151 7
7.752940943684342 0.1056914574117088 162.6705952215855 165 163 174 3
-1.9682382421754838 -4.329370171358988 162.81980336713764 161 174 122 2
4.501608725235257 2.823526336481925 163.02594769009812 64 65 83 2
29.82957192193651 -14.994397646497184 161.31295258138866 45 50 70 2
-27.601693713462087 -22.274671804641198 162.7875554744499 52 41 65 2
25.255658769922427 -16.479870365747505 161.3305538545507 172 177 169 2
-7.66797529151164 -16.075695351987008 161.61719531100385 186 188 140 2
43.46542378464916 11.595970004882812 161.09170762432865 67 67 74 3
-17.706419417677303 -13.347974370135828 163.07224548564315 222 213 189 2
10.918673146708924 2.840806561379287 162.67836276834777 144 144 170 2
-9.683417320944073 -11.507301235020856 161.99522695003697 75 85 33 5
33.140581271383944 7.2997941650242915 161.88436513979957 215 216 181 3
4.635790131605685 8.127511505358479 163.21641924909653 196 178 163 3
2.6580154185497458 2.1545330293861977 163.07277055491463 194 183 187 2
-18.97691840569525 -7.978194924974482 163.1411886436849 83 93 125 6
8.302568204895493 3.7589692704852173 162.83204324248956 134 148 178 6
5.219715318840276 0.8729168154171232 162.8994405270721 160 165 139 5
-18.049396037264835 -4.625480625981103 163.14111289480738 113 121 154 5
28.934574554446304 18.590172266018502 162.37552385756499 124 153 63 3
26.72126869230706 13.690583001974396 162.47812701150005 141 135 112 3
20.340030550660934 -44.43267881355028 157.87619428621798 160 147 157 2
32.63457835455804 -11.5766613270429 161.32706701407582 70 68 104 3
-5.302376732505095 -22.63957764823885 161.2924312012338 193 197 147 2
21.303939000002593 18.425065478447554 162.78757473006007 187 189 207 7
11.253961970134862 5.426282170606672 162.78874249748836 64 84 33 3
36.348422608676216 29.765003891488007 161.75400920472975 214 212 172 2
50.413700870567155 25.367808959389265 160.72997167943956 199 194 212 2
-2.221617841570453 -4.3908540430738014 162.76532593854793 177 190 138 3
20.140638201155415 18.862545371080476 162.9091810068955 208 200 197 6
59.71011993472386 -11.735480161759554 158.72651092635866 110 94 97 2
15.562350201771096 -0.7174813937191236 162.4463380558666 181 174 181 3
24.042317688341935 3.518132301047454 162.38707705228265 49 44 24 2
-7.47766253912512 5.078436132834212 163.35039007196744 140 136 162 2
25.686071317813564 35.27121870426199 162.43779112994454 111 117 147 2
-13.617815001779885 -3.5809100586164773 163.3265958117969 124 117 133 2
11.164587819546126 -11.57804510814708 162.06641168330123 37 52 26 4
2.6627038923488 -40.98567969320796 159.06053362468725 200 179 199 2
18.104910358172727 -8.126644423669573 162.34350855347213 91 80 90 3
29.515384187148097 18.82084195801856 162.375812325464 67 85 23 2
39.51201330216485 -3.849151093091297 161.0250699793496 47 54 74 4
8.363995714249805 4.82544540644846 162.81576096240855 161 153 146 8
-31.743919573631597 33.65601261640609 164.8822761053857 50 44 46 2
17.316952623210618 24.94503171308429 162.92847439555896 67 78 96 3
40.385354495336465 -11.6446977041146 160.7702836217122 155 153 174 3
-19.341758412740703 -7.577876203673907 163.16184444145415 176 178 201 5
26.88494034261688 26.4516911669103 162.4732498534914 120 135 82 3
13.482327971118613 -20.805777601000173 161.31752360436184 128 127 147 5
9.269266653582134 -6.057276042935989 162.5177143934184 34 51 30 4
13.016052938916568 11.73563951155069 163.13649659604667 175 171 146 4
30.89331145473704 24.852579137627608 162.34419871353683 120 137 59 2
42.461842928548286 11.557905475261553 161.23384823665546 178 185 161 2
19.211988648216675 -32.73082011541203 160.52353141262049 190 174 184 2
8.600658323323039 0.4012094709858337 162.70878405353136 121 125 151 2
1.9842351162871097 -41.057848427229594 159.0418731404603 200 175 196 2
-4.8969513957788795 -32.06169102871054 160.9704667115349 209 207 222 2
-28.815040495271557 -36.91355489523789 162.27802776526482 107 116 62 2
39.56390388953483 -40.55433323118438 157.5185999326311 49 38 58 2
-11.351366322986223 1.1274279868108683 163.3042340044886 175 171 185 4
-0.7122835516473671 9.563992205149658 163.39695357847106 47 60 95 4
31.40729667012417 1.05071684561971 161.84892478000532 53 61 12 2
29.531204142714422 22.63249857358877 162.3381482924138 98 115 60 2
19.710123563329507 11.469605881840472 162.71734424105676 99 114 67 3
7.687715743234272 -17.604712968111812 161.87677460911198 51 77 8 2
-8.07810175938 1.9142915584214155 163.34574595790315 192 184 196 6
3.2940306690722685 13.015114069673253 163.34411973963415 188 185 201 6
5.0643657918727385 2.626722970778564 162.95200226453875 43 51 89 2
2.919296375739846 -42.89677133987553 158.6646032707685 111 103 139 3
16.933322294574353 -1.222716180467161 162.4153848396971 178 172 176 5
37.789298011817344 29.863569142784133 161.66648671730425 156 166 129 2
4.523493619018873 -31.14887576663838 164.88757875885454 189 185 200 5
12.540169036885253 3.774074440937437 162.62397240274422 190 185 205 4
8.00168103872791 4.610804545918393 162.85900022801275 71 68 90 4
-0.8621320463906572 -12.703155314564125 162.33666088962536 37 57 21 5
25.905935922842392 -14.625487340255768 161.47715855071144 72 73 91 2
-25.452054292997268 -13.102423216993401 162.9999556983162 130 131 148 2
14.07484681972473 -33.72468401491737 160.62051901731502 71 98 28 2
-32.567047790032866 -18.626204864173168 162.76884157370452 118 108 106 2
-11.22928605670898 1.554744202952019 163.25889983330586 110 113 134 2
38.02208132246805 -43.01388684300397 157.38141016983388 67 65 89 2
-23.16091547773759 -11.5379084885996 163.0678290217763 160 157 174 4
41.25068529160413 9.744165799112166 161.28275494276238 122 146 64 2
-2.1901467802114425 -4.7451968830015865 162.7852696909356 78 88 55 4
3.995621617259421 -31.83529615519106 163.79372462375034 164 153 156 3
24.63277437975192 29.013130657115607 162.67105028248847 219 223 172 2
15.442914498726616 -2.2544130609849518 162.41819761118876 66 65 101 3
28.53426573067326 -15.551820559230826 161.34708213239384 42 50 60 2
24.936943291375336 28.840749078888965 162.61137420940238 144 147 100 2
50.76480043124459 -25.713225842754795 158.38028620492824 70 67 105 2
18.03302043434806 17.037928314222473 162.94218182905345 178 169 187 2
-2.914323996263306 -49.02988215096979 158.3909710236357 186 176 176 2
22.290578066974977 17.26247681489207 162.730590266084 125 161 84 4
5.506211724318932 3.5738613691183216 162.99345017700801 191 189 206 3
19.839217306921295 10.449208671390348 162.6235167447128 192 186 180 4
-5.6749218815298885 -32.045686060240634 160.6085822541995 213 204 201 3
-20.345954399508372 -22.27147157718403 162.99569955352234 227 218 213 4
16.755945560014567 16.791074468595905 163.14566153132208 56 84 28 2
8.374084087129539 -21.999024159449313 161.3868253373477 104 105 143 2
-14.59305150645487 -4.005017056713453 163.23861345301412 190 182 193 3
20.27519197015115 30.362058968167272 162.78200503849968 134 131 140 3
3.681129237039711 2.0411569044988034 163.00535110361253 193 186 194 4
14.702074256660715 -34.92548733634026 160.46538413139376 44 72 17 3
8.859484951953297 3.260599911113884 162.77213391666487 128 128 138 9
15.675888086196409 3.887747347651454 162.55824214382798 53 65 103 2
42.90841565657091 11.831361535279584 161.206391199257 178 177 166 2
26.19894847822818 -0.7991950281427127 162.10342811909155 51 72 15 2
29.191861607759126 25.813854336441235 162.34526010631643 112 121 66 2
24.32145164287665 30.280949943689816 162.85017599731364 43 43 42 2
39.04035612657562 -3.7007114898020843 161.06739120882392 123 138 109 2
-5.4133839932272405 -21.929857341823478 161.29267983748218 46 52 13 3
16.237920957492776 18.173153208617013 163.10255634034584 61 74 52 2
11.639914890556783 -2.257084499154246 162.4443903077132 56 72 107 5
-5.8543511259438255 -54.69414922892136 158.71259460807713 76 72 71 3
-21.817175284685437 -9.478595426207598 163.06708154603115 167 166 181 2
-9.675599144017179 -46.779733406022 160.44506212963418 114 120 75 2
8.93068547558119 -0.8949711937369785 162.574150953048 118 127 156 5
18.289829393218703 17.48357201501035 162.91747669360137 111 113 146 2
29.63159695653975 -4.078642264020462 161.7803853174118 63 88 25 2
34.33457368309707 1.2532692254349582 161.77047973829212 41 41 40 2
14.508501348073889 -19.290996317901367 161.38585544574408 159 163 191 5
14.751028194299266 2.750848139599599 162.5580731886348 165 164 174 3
53.22081691733379 4.1670841133975856 160.07727468449747 52 66 33 2
20.99511388529376 -44.07322354660606 157.69824404726873 29 18 29 3
41.58496254873165 -12.507897086302641 160.71211443517606 227 217 225 3
44.365713654928285 -35.72801037006752 158.0971905102714 206 196 169 2
-31.540447625710783 -22.732186414407945 162.78209121680482 123 121 134 3
-9.15150721880131 -38.60567802434919 160.79728297725183 214 197 203 2
29.425613551913365 19.854466319657732 162.31454085119626 87 109 71 3
-1.7805608150670238 9.282038205750741 163.3582562977826 145 148 164 4
-8.64107374203268 2.4656566879956467 163.36686123031203 137 134 160 2
12.176205872961154 -18.115769288093357 161.94930865601918 127 170 240 2
18.724944969260147 31.425081690529396 162.7202891395578 127 130 136 3
20.79134732258052 -43.53215836559549 157.7829567014475 128 96 109 3
-3.0326924427414435 -4.544498878441551 162.77258647818613 35 49 25 3
-29.08485883636706 -25.05992212465083 162.6755978571235 253 248 255 4
8.65715728083735 -6.739113476600755 162.63364003391385 36 54 30 2
-17.13075085757085 -5.511906500220648 163.17364847457065 187 180 195 7
35.739840579618864 -8.186917927811528 161.25635603181743 197 196 150 2
31.042859418323996 -50.793890423088776 157.18852209459695 160 154 169 2
8.988272425018904 -6.7092077145827504 162.54541934595628 31 50 27 2
22.33204397134053 17.13328933261343 162.71639333852443 115 109 122 4
39.62627024914796 -3.374094191932019 161.0216343509536 57 63 89 4
30.15593793202652 -14.921895990441854 161.27464220506468 122 121 135 2
-1.6916128531787336 10.231231327929667 163.36704543727515 115 122 151 3
-9.93200218780637 -9.780801989995126 162.04623355420654 44 53 37 2
32.20791311217255 2.4916558447171084 161.82070904455264 60 83 22 3
26.704185453715507 -50.09600186880617 157.36381311753848 172 164 177 3
-14.55674920203961 -45.88132576255725 160.41966204656373 135 121 134 2
-16.6050054742674 -5.139342392096751 163.18825919424032 179 176 197 6
-6.297109080562972 -31.464039865225224 160.77487538629828 172 169 127 2
-10.115839041765451 3.0473554018002553 163.31381333167363 91 104 138 2
6.758868364759093 16.01622318768674 163.23524181838377 45 61 95 2
6.81873820020732 16.99722008958978 163.27786014692646 181 177 178 5
-14.255172174557632 -0.37716403781652075 163.20682399159466 176 167 177 3
-29.548967720728736 -16.52785772715474 162.79888451192852 181 174 181 2
27.476054523716268 26.506914609233917 162.49688934385057 102 112 60 2
24.66639188424148 -14.421560866311935 161.53055961469136 188 178 187 3
23.786941943234826 29.71587061071608 162.684646467506 168 166 125 3
19.81224776332361 2.270654264966415 162.49341378048726 216 207 197 3
8.576531249520183 -0.11701549754935965 162.6247659860307 122 126 158 6
-31.872939333833028 -31.66755918962163 162.42130130824157 183 182 152 2
-2.3936918072066176 -13.096834957920384 162.2417932341024 28 43 21 3
21.072410667670308 15.714942548073946 162.78241644324706 215 205 206 2
23.231759082256538 -45.713857706012035 157.72889172541463 180 163 174 2
5.929951649502484 -29.634257896518957 163.65975257149157 159 152 159 3
-8.996485928161665 -10.130957400757731 162.02472128544076 70 59 46 2
19.177348939225695 14.742874239439814 162.82044205677428 79 81 111 4
18.671974509389607 16.823015671239485 162.90813253949946 115 119 149 2
1.279185203395214 -26.330049147015764 161.2675795208771 227 225 229 5
41.192542308825004 -13.195934404031547 160.6942057726248 164 162 179 3
-6.998120555980874 -22.46417725943404 161.2860845557695 55 65 19 2
25.566000275427296 22.14404208727072 162.52941005315913 51 67 8 2
11.412622883507412 2.292271690311514 162.68608721805586 146 143 157 2
10.855689794169418 0.21928323857722903 162.6325377495606 137 139 162 5
20.901576887620006 15.7572901967624 162.7797055375645 77 78 105 5
11.44330934601411 -19.309385896667393 161.46437177505766 53 59 86 4
8.174208232093168 -7.097471249184373 162.5885374626482 82 77 75 2
23.69250872854075 3.4547629660625407 162.4404134088839 220 209 192 2
-20.776224652526736 -21.289115189179785 162.83897464233945 105 103 65 2
11.559224757650691 -19.89238175275659 161.42354897323492 136 133 155 4
1.8441035745590115 -3.0354561462425647 163.04552193157798 61 67 96 2
-13.783474726349189 -45.3848093747772 160.4342250006819 203 190 207 2
10.337328855525296 8.760040634362854 163.13247949224973 196 192 160 4
21.417189378526523 -46.00582213666834 157.74587308604052 164 154 173 2
20.075787396307167 -44.226259738043126 157.7786386865463 205 185 194 2
-9.74101194720936 -26.66109630459885 161.3068302500989 206 202 177 3
7.918107894658024 5.305633474507916 162.89124604159537 131 120 92 2
32.25593639774249 -12.53424261397815 161.3087505008218 51 54 84 2
11.557311515261018 -19.491537872440013 161.46287996762996 161 153 174 2
-18.105217917913894 -5.053451436838755 163.129003761317 119 127 160 2
29.30883006200914 23.502053674210067 162.3830973999939 206 211 171 2
12.431958238754067 8.66443307557675 163.0791928171694 214 211 191 2
28.055796958512655 19.454347677814273 162.44136673779823 110 132 50 2
38.83929370665479 -12.21083875195921 160.83280660016865 187 183 199 2
13.836560573257733 -1.2392575508492814 162.48227714438747 177 176 184 5
12.091756312098186 -21.11220092990093 161.35096083066244 66 64 97 4
24.69389651134306 32.72093278681131 162.66317402584414 181 173 184 2
-4.819261178966006 -32.17656772881991 160.97670057584915 49 46 68 2
31.70588198308928 -3.026791609669606 161.69326850229817 107 124 75 2
-56.2793642178876 17.764923119690216 165.02076037240252 119 155 38 2
-13.321661422029134 -0.5305665542821318 163.2562479460061 171 175 196 2
32.56017199700534 -9.659081874228532 161.3696533730401 28 42 29 2
12.138596310763088 -0.08638566757716262 162.5879408807663 127 129 141 5
-4.908435976672037 8.777163218409312 163.33437746753117 98 107 138 3
-26.40294194910267 -12.652173574127366 162.9556426488945 131 143 172 2
12.167628517287223 -20.30329045921622 161.38950211252188 57 74 116 5
15.214571041460447 19.027269103254472 163.0405325776012 169 148 153 2
20.60710373304207 16.4224027207202 162.81347099769886 227 224 244 5
27.599535568273286 18.169933759331126 162.43098854970086 145 163 82 2
20.02043658714965 -24.927937173684107 160.85791806967993 56 54 71 2
-4.098821861972129 10.036444874957825 163.29407650068256 119 118 134 2
-20.250844834005814 -8.554383944014555 163.13187679020524 76 77 103 3
11.320439327856352 -19.23460277972539 161.46227297061563 137 136 158 4
28.655919052640787 19.99596618422903 162.40543110563135 55 70 15 2
9.622165685434384 1.3606652212563264 162.72378520049307 141 144 160 9
32.21116531762701 -3.506734466906749 161.59487713893114 104 129 90 2
41.09282626138729 -41.92001166086375 157.31652261787082 60 58 97 2
-25.32638768462102 -12.711097589372477 162.96531559742624 190 184 198 2
-3.8855204438515942 4.762208915664133 163.37115863063528 89 90 111 4
-8.88460911614795 1.981892085994223 163.3561770751062 55 64 105 5
12.609758138071907 9.005098182745762 163.06182433213093 73 77 62 7
25.132125419489903 -15.883550892119306 161.40221275595366 82 81 82 2
-13.236531301991059 -0.6153509730352974 163.27752677251138 104 109 139 5
18.868421022046412 18.306274733000304 162.91828036043293 98 98 126 7
-10.493266160034521 -58.81650944047607 158.07248164396395 136 128 152 2
-32.140815394383935 -22.212934221669304 162.779184196188 126 128 149 4
-0.15307485967592582 10.750911286813714 163.38380467170927 153 149 164 4
3.16414636740426 2.165287138023091 163.04225785401707 72 68 86 3
11.16068376855423 -16.901123880195673 161.60210985799253 101 100 106 4
32.51147170426337 -10.782324659794714 161.356639214503 48 54 96 3
2.1121981456583905 -42.16786327776037 158.78508935425177 57 47 70 5
19.690991120203158 -44.67447580666328 157.8469379621143 208 194 208 2
54.77914236796754 -17.312841397030084 158.89471861501454 130 126 159 2
17.9874941210272 -8.124545781723477 162.3498627177435 177 171 157 2
-3.1861143941718746 -7.74099570930684 162.5831723650824 228 230 191 2
-20.428654947547944 -8.760835937368299 163.12000250257688 53 57 93 2
11.704520452048802 -7.967820382213249 162.0844736312948 47 57 50 2
-16.26539096216414 -5.584793673724211 163.1802755162111 212 206 216 5
18.650205808593682 29.27526272228113 162.89127280759945 97 109 132 2
0.9732586471096192 11.459205068417608 163.39225403282387 187 181 185 2
10.740650396872542 2.1179976385168566 162.66039594140898 77 76 90 8
-22.910267427002502 -38.50763817126158 161.98014728496025 130 130 101 2
-35.95254353992254 -22.729114138078188 162.6155426447572 39 44 70 2
14.469912393493509 3.8644614822346286 162.55678716352006 179 174 181 4
26.10895769480528 -14.793330119950701 161.50040351273913 189 187 192 4
-12.888715628421785 -0.5262737164235645 163.28719360811854 181 180 193 2
-19.920819007839427 -25.973837808898924 162.5131172694487 131 119 84 3
29.82665870363997 -5.315410698748732 161.74027967073465 33 56 5 2
10.39527987766007 20.29778499489278 163.14962085609992 52 57 89 4
-15.764508260642359 -2.850701316168991 163.17004803828857 87 91 116 4
-20.742457726541716 -9.92384395909533 163.12885183657286 161 163 182 3
17.79275082887994 -18.116379936195763 161.4260335602942 188 178 190 3
27.205234080247898 -15.810815927579746 161.36811651878764 165 168 175 2
9.514578095184326 -5.911128153354861 162.5092627577734 38 63 25 3
14.09385028536172 -16.7011626499315 161.60608248023308 60 74 111 3
23.860373807415797 -17.581217835039354 161.30501077204806 135 159 82 2
3.9867957560178526 1.6327465159007644 162.98829388038496 47 50 64 4
-4.890820448956268 -32.302800106873114 160.99564054853417 235 229 238 3
18.150852439285327 17.908115972619395 162.9423770450758 212 209 227 2
56.25257820731809 20.10496205860712 160.3439931233551 77 101 41 2
5.545206490790235 -47.69981332947818 158.04485623870073 39 45 74 2
-1.9229973943679102 12.081746691130384 163.30299728242085 151 152 177 2
28.9740000929682 17.48917371537819 162.32393254251215 146 164 103 3
18.154992989950788 -9.287602817468251 162.0646094775997 132 138 78 3
-13.89790372682729 -0.3296319648273335 163.24091175734745 197 189 196 3
2.1259256916560294 -44.157029259571495 158.58961971551992 69 63 97 3
21.88825409421392 18.006334190077297 162.7635056295066 86 90 89 2
16.218064719862117 -19.53308304233934 161.2993373080484 180 172 192 4
8.939876779483338 -47.73512879055909 157.82646725200377 175 174 197 2
-0.8166271340699199 9.228200614805148 163.37886391982752 70 79 112 2
-33.67432290183369 -28.477853635394766 162.53533578323996 70 63 81 2
5.213421602723749 2.4308078010200447 162.90780660660434 139 145 179 2
11.394870306580739 4.983062970290981 162.7811198060223 78 94 107 3
6.49398954941234 2.190781377080203 162.8568422123267 129 131 162 3
16.081038415103798 15.80264955631095 163.1818925102615 110 128 66 3
17.94628125507508 -3.8362380397617843 162.44648796126162 32 36 39 3
12.970315853256372 22.587777803155934 163.0725455469552 158 158 160 4
11.041838515356877 -17.08990871535289 161.57187510815436 165 158 167 6
-16.346364814874317 -5.83754148550384 163.14651433327109 132 126 138 2
-19.86535717934364 -8.142271701913183 163.1230066891513 130 128 143 5
6.986074831986534 4.084530689974738 162.93361072726833 205 198 206 4
-10.562970534261439 -61.71083351127865 157.4170884597652 181 182 195 2
26.90470940837343 12.806161438115298 162.38579031505327 166 146 148 2
20.113997525030996 -44.80522307582088 157.88820784867366 62 47 57 2
11.9217972859764 5.3886341750979305 162.75177166700198 91 111 56 4
-32.85860578299721 -36.57113059709373 162.20709954376682 40 46 43 2
8.696743940980152 5.087982559306753 162.83768421832312 150 145 121 4
-10.15648917560048 -26.732672079361695 161.38107271975954 132 131 101 3
12.66041594532449 -20.77693177029841 161.35942887930537 173 172 195 4
11.56172289105388 -21.551984131173878 161.32655399923846 45 58 102 2
-5.630300548702889 4.943806104849261 163.38640989386298 194 189 209 3
-5.061321214671813 3.1894726841210312 163.32665451158098 85 89 117 5
-3.1211342151512977 -7.634244433912938 162.6058330984315 127 129 79 2
41.65978992084549 -11.952418466223452 160.70024071647788 121 118 135 3
-12.343014059024155 -0.7993970879685796 163.2852813286015 108 106 131 3
18.027336629642853 -5.655056273524967 162.496152402671 35 51 39 2
27.358745143911065 24.42907225241312 162.45624887047939 106 120 60 3
43.16828383656314 9.883718166087098 161.16930866337418 180 176 168 2
41.17663707313926 10.182519747187229 161.35287419883917 106 142 64 2
8.881333972537819 4.95892400090734 162.78988155900237 65 58 73 3
-25.337555242197176 -38.07148362680628 162.29880166008647 215 204 207 2
-9.175045661625521 2.935726632041664 163.35382603601357 133 133 157 4
28.306010862242346 -48.55324938774462 157.42335957549238 176 164 181 2
16.303352340257835 1.1229692717825484 162.49226246112488 131 140 160 3
13.22994111123189 4.742442199786682 162.59175717212258 103 98 130 2
40.28366250148642 -11.0477513273208 160.82106136461059 115 118 147 3
12.564557967855945 8.47295542069611 163.07033983693432 82 87 93 3
16.995655745189737 17.301016560114515 163.059346072848 133 143 106 5
2.2376218930533285 -38.490973031020275 160.6382008621084 19 40 25 2
7.651434743830227 3.9863088965895517 162.86558486145114 164 166 203 2
12.528847382195954 -19.04322620033329 161.47361037435388 110 116 148 2
-21.39877344505161 -11.097342914183315 163.11315463721664 147 140 156 7
29.676955549715814 17.76376967487476 162.27355133351676 43 63 33 2
30.010441186913052 -15.313994298694732 161.29203217034095 166 165 170 3
-13.45666279093809 -0.9993089194558074 163.2719777054227 88 86 106 5
-1.7567998797056712 10.664540669020262 163.36331681521878 113 118 143 2
-20.436624988941624 -8.770606328955806 163.13465562256482 61 74 110 3
38.38831580351393 -2.485779816280574 161.20617797004684 48 56 33 4
8.143544524368071 -7.613860225275643 162.59431162221028 181 181 151 2
5.997715029712866 2.374153876581018 162.90929443232673 40 43 84 8
15.515020230453361 -21.400870688525963 161.14706002838585 125 123 144 6
20.600891996379445 31.320183931612352 162.70190550533525 122 127 146 2
-4.825656185365908 4.713714221593355 163.3568223377286 68 83 126 5
-10.915411047983016 2.544758062946381 163.29595731991685 122 126 145 3
20.308062209010945 -43.448739186076416 157.84239546689045 169 147 160 2
10.776959092387656 -1.8814151678781448 162.4849001094331 165 156 180 4
9.701238946416746 -3.8628524001178426 162.42457424431672 96 100 69 3
39.70661402523419 -6.618893728926182 161.0376248279889 71 78 101 2
22.062993361959748 3.7841705669706465 162.48278686505668 111 115 46 2
28.9189521196052 26.409329250096665 162.43599457975412 76 84 30 2
37.14197639230942 -7.665464054592614 161.10151606354458 154 150 141 3
31.99602741540191 -10.734524887619951 161.37385380080167 65 61 94 2
37.0962700021707 30.357405478769596 161.66519826131457 55 64 42 2
32.05848623931681 0.9159332960421661 161.82000560727758 169 183 99 2
26.85533483188705 -46.065041714677875 157.41021580789334 75 65 78 2
13.068642879985287 -19.397527460618328 161.41633853795582 103 118 159 2
-21.379833312777453 -9.61395631900057 163.0653563477078 74 71 90 2
18.524421925337297 15.989195630935113 162.8809383382686 117 125 151 7
15.270136129277141 16.302746147317926 163.2254105941061 112 137 53 2
-10.743673057617107 2.2058164295704086 163.33323470418102 137 137 158 3
13.538937013193303 -19.34417916158601 161.417841908363 162 159 173 6
-39.588865045615904 -13.285185383105377 163.9125740953919 16 38 1 2
-12.864645221298257 -0.9457885530609784 163.2629892628182 181 174 182 2
-51.7694439089679 10.966250047928565 164.51307807453182 166 178 104 2
18.40636956967849 17.286649802689137 162.9181414088392 56 63 100 6
34.123694476554206 -14.344579024606158 161.0566174797318 143 139 151 2
36.09671655173149 -8.352244463037321 161.16361649743223 51 51 75 6
22.096177841525748 17.820532327005868 162.7389651203896 232 222 223 5
18.32383672519962 18.822781895048283 162.9543138913138 118 112 140 4
8.228449958158297 9.773486970009587 163.54443778926938 115 131 98 3
-6.320073927992395 -18.992788513960015 161.41709137395668 163 155 118 2
-4.868858517661445 -49.805030005634734 159.28153989548244 195 182 181 2
12.076486295639922 2.6909507717269086 162.61894995821635 36 51 90 3
34.598193683862156 -13.74620831652701 161.00049351473845 67 74 88 3
8.735571429738684 -6.554048268997557 162.57608517911194 43 58 20 4
22.147720335104044 30.80326001061801 162.71965961047357 70 69 91 3
9.903517630579305 2.7970639505216237 162.75091686561947 157 157 181 2
13.758813808446533 -34.3137371772802 160.5332280347062 114 150 79 2
11.275361138406096 20.281690147851158 163.16004081379285 66 72 88 2
-10.803088566606954 -0.538018763249603 163.31961734276638 95 99 125 5
32.02582888362935 1.1950439997880475 161.84250495688082 169 194 99 2
10.42440272766462 1.8562905475714193 162.67764434470314 165 153 174 2
-1.0164901634224834 -12.613801879698025 162.33707209613613 36 57 24 3
18.671673669824685 -18.59795287185191 161.29840893745094 196 188 200 4
-11.03581073495585 -22.967917996235755 161.859875897835 70 78 43 3
7.490848845431285 1.9540507723600329 162.80713525203262 136 142 173 4
-18.858815546124433 -7.158081825988956 163.16188904352694 69 77 113 6
27.09726840251983 4.2449967197653455 162.35913308933468 133 130 123 2
14.151790448675543 -17.558050077926346 161.51847358743817 184 173 189 3
12.081999472871159 -22.134026498933665 161.2553504733469 182 183 191 5
-2.230249646903066 -4.942331551712282 162.74926470527708 180 193 141 3
-9.123705297026829 -15.644878458818228 161.8823881186843 190 197 146 3
10.647178999965943 -31.546758565278743 161.09598723549993 145 189 192 2
8.905997454076855 0.5688569910064666 162.6790199352791 90 89 94 2
13.61370123867659 -16.72883431925549 161.5939131710774 114 118 152 2
-18.303504831411637 -7.113106868836902 163.1592491522265 106 107 128 2
4.410572761777667 3.353779544439834 163.0343077354568 106 101 112 4
29.9311166621001 -4.9170068355927405 161.73212057527107 97 129 45 2
6.14646727547516 0.6908169456407881 162.7790337223071 46 48 71 2
17.400220482171253 -3.716241896730716 162.44930640665265 212 191 197 3
28.48077948190454 -14.359137122741883 161.4149210901107 114 112 117 3
26.696601483647733 36.66907785252753 162.32681694176424 162 158 173 2
-30.97685769374291 -36.941432440278284 162.17813115600404 157 154 122 2
-26.25167123803261 -12.885529813738211 162.9814405608472 43 47 79 2
9.449627203120379 -6.549312333097366 162.5078993743207 31 55 26 2
12.907523640002706 2.9477656261488914 162.64068262113878 64 68 98 2
16.917754524311942 -21.310821639849436 161.12572034833727 152 154 176 2
-15.750707306532183 -2.8650442651383754 163.23825892600547 76 80 109 2
-10.131683143376163 1.792951486120018 163.33495972806946 126 119 135 6
15.628351860529028 -17.222290725044484 161.51697764522316 196 191 205 6
24.651125326469813 35.03131779710505 162.51241856460243 155 151 168 3
-7.320907653112349 1.5176021359762801 163.32571957102752 136 132 149 2
5.052537960143955 -30.266159208894525 164.89409009134857 209 201 212 2
2.6127690525862364 -45.993833389754656 158.37194778271402 153 137 150 3
-8.584239429838554 2.4135136114305555 163.37064592623216 102 102 125 4
-5.290527655652529 -21.940486599091635 161.2942602340753 139 145 99 3
18.379103799032638 10.361281482223989 162.7586179482094 162 173 97 3
11.971598253973294 -18.87578255916544 161.46444106425182 75 77 96 3
7.174468637046175 -3.142705700508955 162.80132925135882 111 134 56 3
-2.284664668816909 -7.441528229949194 162.64134831606998 223 215 177 2
-8.046792759322804 -17.320792778568784 161.65146517394015 229 230 199 2
36.392662925414726 29.39345702148508 161.7784677222998 45 49 24 2
10.142469120377013 4.7062639104934325 162.7171398170172 84 85 105 4
-19.02119488872554 -42.44237311512781 161.01105399239228 218 201 193 2
11.117703348282259 -21.904502536417922 161.35174889538203 186 173 192 3
53.33378070702498 -18.59730868067308 158.92172141409117 145 132 139 2
46.62078854600241 -37.0109151879286 157.12444604757133 43 39 56 2
-2.913443279451377 -49.313460834379875 158.59213786920063 37 43 75 2
-23.575000538209853 -18.06546910860965 162.9366683719537 53 44 61 2
38.524749471338936 -42.05895694192645 157.51733488409562 196 179 187 3
5.997383604274369 3.7467755872528046 162.9414630713902 161 154 172 2
27.7920089137027 -14.094149931956128 161.45700482726627 189 180 181 2
19.984125862189483 18.31562561875752 162.87272703821327 144 140 157 6
-14.035320675809846 -45.659070229277724 160.4296362348745 209 198 214 2
-0.878298730504079 -12.48523793875663 162.34146674603835 118 142 58 6
-1.7304383907767011 -29.519222542072125 161.1253860239002 188 187 158 4
-8.305641417221711 2.1883626965333653 163.35415241087537 130 131 153 4
24.882487068835818 -14.611650907831518 161.51416280197037 90 97 123 2
-7.451428894133672 2.8625378771433203 163.36106546800994 163 168 187 6
3.074977034149979 14.706321065339731 163.34295797130898 118 131 149 2
-20.788283409428757 -9.82069696622353 163.10666559603956 182 175 193 4
2.8224392442076054 1.9438870878193255 163.14797518090666 18 32 22 2
-16.663013278258944 -24.221854274038186 162.56714416904967 213 214 159 5
-1.8780487844062002 10.548102673719804 163.37374795419484 125 129 148 2
27.691832153264926 25.905604540540093 162.46819917661807 126 139 84 4
42.33633392545051 11.358354037232685 161.17319916680287 99 115 91 2
-11.6767815559128 1.1049080907845992 163.30800480331757 84 84 107 3
11.892703680926978 -20.417204662238774 161.38136738962953 173 167 181 4
12.802305809885457 1.271254109106747 162.6189955005352 108 114 142 3
15.395086128832531 -19.683012046713667 161.51097684589396 52 62 111 2
5.871103657482814 2.6782469299073153 162.93036360445564 168 159 179 5
36.03651507888016 -14.311883850961891 160.93936142054315 140 136 143 2
-0.4028961667733567 10.946253218716588 163.3818575385826 69 66 83 4
34.43080552300178 -46.74420721515748 157.34193314053832 186 178 194 2
14.930193037211998 3.726144330234839 162.5465259735136 161 162 175 4
37.173581536204274 -11.668908105404373 160.96111899729277 77 76 87 3
19.427474780559688 26.03182240177575 162.8801281157416 105 103 104 2
-16.876337907921574 -4.195152891611971 163.2018487913506 132 141 174 2
-2.2185841632505925 -4.393381878086793 162.7645979255021 177 190 138 2
-7.408839418270122 -16.33634037278105 161.48989051569916 109 109 65 2
14.932040651565211 16.16006261656052 163.2759793603623 100 118 65 3
14.333269647750072 -33.85542811079844 160.57294092889734 115 140 84 5
12.252776404868914 20.656895109038505 163.12291845909138 184 179 176 3
14.712377898535221 3.3902634804614165 162.56415106814012 53 73 110 4
-16.40970081752336 -14.474360210910769 163.4018623411052 148 139 146 2
24.24965639920489 29.937447216746193 162.65882375654903 136 141 100 2
12.834970246623971 8.044473877352008 163.0350973883894 107 116 99 4
-3.073510300017016 5.062538624339365 163.34954912937863 92 93 122 5
38.08717569921969 -14.656644666200618 160.81241407699451 56 64 81 2
55.67556158666187 -14.831528260913165 158.93668730651723 217 201 211 2
22.381564996628743 -40.05644019530461 158.32024828826292 123 104 123 2
13.300576632826814 -21.324214641631098 161.26223541133734 180 171 190 2
5.967734971192916 5.901981862316707 163.13644114256113 197 183 171 3
-12.00239529080504 -33.33063603867916 161.25296396488991 178 183 142 2
5.384427966324065 2.8239740667788586 162.93344475387863 201 199 216 2
11.952653959471467 3.9484175918914204 162.6339437093955 189 180 201 6
25.426846559793926 -14.498615365320946 161.5219327875257 168 170 175 3
3.3078819192126523 -23.931154872112344 161.39658511697456 129 129 92 2
9.512594763354361 0.5187759121215135 162.66452518501214 51 60 85 6
20.47709058678777 22.202925858139043 162.8974741294282 240 235 205 5
9.8611664432649 -1.268126258785714 162.4562892752506 55 71 105 2
14.51587532862668 22.961622176760958 163.1249127415689 188 183 179 3
-10.805539619466881 -0.5389901412388014 163.32069390558098 95 99 125 4
6.621858097018221 3.796339439197225 162.96803225512048 67 73 108 5
19.395750715542178 17.05279201111034 162.85862740789602 134 148 188 3
16.571452553272124 17.041380025211698 163.11293951595061 125 150 96 2
9.770263252898994 9.760940344129025 163.24064631618478 62 78 37 3
19.08930996666458 15.193517067617208 162.83954007127764 64 62 75 4
15.34555823882319 19.39815832979755 163.01136689579468 163 147 150 3
10.404742102184787 1.766120253385064 162.68150213798992 148 146 149 5
26.33633035090889 -14.474155026301556 161.4866630176477 78 74 75 2
7.097805026296253 4.046901919798321 162.90973208944098 51 54 104 6
10.791465034544643 -16.711248773366457 161.67409960664645 169 158 156 4
29.05641866568903 -14.018418274092667 161.43356797558295 70 72 87 2
-9.8172233677901 -9.801559224556131 162.03334211801032 213 212 195 8
11.404730635488418 -17.254957831702907 161.6113725747289 174 167 183 3
-1.4052506565600626 -29.05716607427422 161.17861105213015 109 108 78 2
-9.841976572468903 -9.210639362427996 162.1022958915561 136 139 90 3
11.966657032936054 -10.986248442833803 161.90736821649924 60 74 50 3
13.497716646423223 -35.06224646562032 160.60118836025634 31 61 25 2
16.225283936013273 -17.57541726108067 161.46382593998607 141 146 167 4
0.6727951878996895 -37.439045605080686 160.7050283942503 24 55 13 2
9.948076951192915 4.852810864575192 162.71728541857718 147 146 153 2
17.633219109289538 -4.133968732570311 162.49334628748443 40 40 47 3
18.638692341050106 18.657379336381037 162.920619649128 126 132 158 2
32.664832380727105 -12.422814764650646 161.28836919952874 184 171 189 3
-30.497562008476972 -17.49388132265326 162.8817202771144 72 66 84 2
-29.989391591114785 -16.105909821805128 162.85696760912376 210 206 207 2
1.2063948163902123 11.669024577155582 163.37559325983182 63 63 86 4
-25.181297882398898 -12.179928570100538 162.9862241650908 166 166 185 2
41.9529219691373 -5.580274525451534 160.82418880882486 91 93 115 3
-10.111330709674755 -10.31708756728037 162.26838652393755 196 206 156 3
40.59594989769997 10.617328035058485 161.3762907366196 27 53 14 2
-9.678871390073791 1.5186137624913407 163.34016387308586 185 178 186 4
42.737416652298045 11.515036517206509 161.17665559391554 56 59 66 2
17.09982913245629 17.363248611896537 163.03895147238796 44 52 37 2
57.07258016221183 -3.4980454265741336 159.91716418872792 207 203 173 2
11.543196002254879 7.561205353669379 163.0930788145229 50 54 43 2
15.21148215566867 -32.08457199761134 161.69463139003457 52 78 113 3
11.263289940791001 26.21918461415681 163.0018607501191 96 98 92 2
31.613926054725813 -2.9043424899857486 161.6942525742034 90 106 41 3
26.60949379512118 37.59003955474286 162.28286728583464 182 176 190 3
20.89444592830409 30.38489763439684 162.7681367163595 167 166 167 5
40.36021032117531 -40.58930388018781 157.5508115764384 93 85 98 2
22.245566532323767 35.32135457908665 162.57925375563792 125 128 159 2
41.26153692581503 -12.017227777933872 160.70893080092958 95 98 116 2
8.272115561010702 18.230982647852684 163.24180731725346 58 69 100 4
-2.383071036426069 -4.9590254222670485 162.75265559629486 57 67 36 4
13.147881016890432 8.412957985489905 163.0257220834309 106 119 73 2
22.61795036246471 3.033063954400423 162.42537420953744 192 194 137 2
6.015683538286439 1.668017395633348 162.85318058594405 117 122 144 4
-8.585248983189672 2.4119008039157146 163.37366883783105 102 102 125 3
-34.67773976915481 -21.656414346250177 162.65385003846023 173 156 177 2
17.995077531529468 25.48014421662156 162.9832040573018 98 96 101 4
34.065758698534324 -14.2410897153846 161.0522379297328 143 133 142 2
8.020101720808084 -36.52381144111108 160.54413068231986 42 70 10 2
-24.24562289993663 -11.098575404580691 163.00160424103146 77 79 104 2
28.95091589099048 18.22239516145779 162.3822161673092 107 134 56 2
9.958129572967016 -1.0052469110782376 162.56196651600737 120 127 155 5
25.144363568008743 -15.276052078623303 161.47523810354338 58 57 62 4
16.580834467470993 17.986517126931616 163.0885761601466 207 213 172 5
16.85447062388096 -0.09252728675960109 162.4626593335254 60 63 94 3
29.46700389566912 22.60774146409991 162.3262381302568 45 62 25 2
0.5910081736367887 -10.805446363105666 162.48097867910363 181 182 138 2
18.033201953887353 10.383175763681377 162.79202043160274 63 80 35 3
20.767229903291863 -46.05537899115178 157.69031584689785 50 37 46 2
16.706406525562834 -28.518553056418778 161.73123976646542 155 181 230 2
-0.20242621172037228 -1.6213263183979436 163.08969121204186 166 189 110 2
-7.492412963441233 1.9458751836330386 163.35187716261234 195 192 211 2
9.744752845149636 2.795221290900013 162.7500410970442 46 57 86 2
-12.215210286556584 -0.538224275751787 163.28002531042185 85 86 104 3
4.802796327715936 3.544443901442821 163.02171629962064 59 63 99 5
-23.14380153720343 -31.671714421239475 162.42746263972805 38 55 48 2
4.3468846385012965 15.125250620797928 163.3127166470589 161 158 177 2
5.228999230809225 2.4271708219685713 162.9547887596848 167 172 204 3
9.637637920403774 -18.36238728531166 161.55042501078412 129 130 152 6
37.804522613557474 -11.805411634429921 160.87136690809277 201 201 215 3
18.45373349209929 18.177337453720128 162.9361909047581 90 96 130 2
2.7233984741966677 -42.75636546859262 158.7381624204088 171 160 179 2
21.5750959177502 27.715342848558127 162.80289668608833 133 144 77 3
-29.17522413856478 -15.369500491255259 162.89910563634433 171 161 169 2
20.13475235463645 18.2302978836042 162.85651076930895 69 70 91 3
5.085221140762304 9.398206068041974 163.185516508483 97 108 39 2
50.52855577577961 24.864872967382954 160.74904457345474 209 198 214 2
-11.48206876867004 -60.23129056960432 157.64174345785077 43 37 70 2
10.20483380021277 0.6073811340096514 162.67532463036076 156 149 173 2
6.852525587910504 0.2556087677111515 162.74393639783256 38 45 87 5
19.147397077500983 18.38065992052129 162.90930806799028 103 101 124 6
-11.202888048395542 0.800216380114626 163.3295633655747 179 175 189 2
-6.024389348139542 8.228789738754788 163.29130106300357 97 101 123 2
6.363355056382612 1.0394179874012806 162.780821160804 116 115 149 6
36.90292718295631 29.43122734055149 161.73327832779083 153 165 120 2
11.384237082390781 -21.944265102661145 161.29366219484336 60 67 104 2
-18.94965102112073 -20.34622493784171 163.2759377224582 51 53 75 2
9.200254037768355 -0.7398825833572313 162.5948337772132 120 125 162 3
20.01426881947173 15.31690454639257 162.8012568460564 189 182 189 7
0.7399077917571708 11.525192289040154 163.43489297754195 152 146 156 3
-17.261136636126306 -6.1972038012201525 163.1575881624597 59 71 109 2
27.063057115678493 13.379553836196122 162.38775036498893 255 246 236 4
29.814662703659938 -15.46905539176396 161.28865929699492 159 159 161 2
18.801173323826134 1.1356203336870725 162.58534114040174 122 142 89 4
32.68364766751926 -0.7670759062691975 161.71103484782975 137 149 83 5
26.322657159040496 -46.29130390803302 157.5311639556262 178 161 177 2
17.64370936243623 -18.320154756721216 161.34304751458887 155 152 169 4
-24.65673061569152 -40.24144320798572 161.9995783561944 140 132 111 2
-0.09777137601830303 11.11836693466168 163.36029275859389 147 145 165 6
15.551670851984397 15.684578037867707 163.1845676947674 158 170 104 3
-23.85618874201076 -11.231515602082995 163.03023867659746 145 152 168 3
-18.079016074784047 -17.66399745392671 163.06379050016963 69 70 58 2
10.404206881907948 0.27475387892232433 162.64049411163447 153 153 161 3
8.348922547308534 3.991271356591467 162.8169448074448 137 136 168 6
38.38359602858786 -7.219049397961608 161.04800269542403 64 71 97 2
29.272835196898505 23.343337486045854 162.36963475809225 104 118 76 2
14.992789894635594 10.0926956661024 162.92098339973637 77 90 39 2
32.18853375814208 -12.849917950395668 161.27615957185338 174 166 173 2
16.718172094541554 -17.698461907260445 161.4399245794963 77 85 110 4
2.86184244816231 -42.56192189220477 158.69906091832152 187 170 192 2
10.66074837538824 5.065975267698496 162.7387768949057 88 104 76 5
9.45054199918223 -6.546163443773228 162.50922720386228 36 55 35 3
33.03971737473513 2.0073216442924937 161.74485504490113 89 110 69 4
-10.04054516531966 -26.800725431760767 161.379158268628 210 206 178 3
21.90779231046861 18.625352994691802 162.73178854570776 58 58 54 5
39.24842965272926 -42.019346488380506 157.42897297412077 112 87 108 2
16.255518179905952 18.314498997578042 163.0785766681392 51 63 22 3
-2.8345871472715314 7.823763380256315 163.3641317774715 80 80 103 5
21.228508795292754 15.884672948300194 162.7630255891651 189 182 189 3
16.296102060026932 -21.88477655514078 161.12260258392064 47 55 75 3
54.574803223124235 3.9407243457432717 160.01627289952043 116 124 86 2
12.227288127839538 -17.040666740182438 161.59665057139787 174 167 175 2
16.64824597717267 -0.47947387130118146 162.453725552593 67 76 104 5
37.156028668958335 -2.5354259069340075 161.33952276152615 46 64 10 3
18.05070987125898 -26.446803707341736 160.99268279994757 242 245 252 2
13.890862591782675 -20.708089795397413 161.3046664790042 88 97 136 6
20.263710994971106 27.506769858519817 162.88115696409528 109 106 129 2
34.30722695558886 -3.7241260040767896 161.397195791187 41 57 31 2
9.895783816765777 -21.072588715213506 161.41598402404577 133 134 163 2
11.314368395624651 20.654820729948327 163.16189180453586 121 118 149 4
-17.311351135458327 -5.431705163984943 163.16101894665525 173 166 181 5
18.859295245146832 26.349449424974406 162.95152049554184 173 168 171 3
-14.090591998844516 -44.95752674851949 160.45915151099803 133 121 135 2
16.933934914657513 -19.344404213755062 161.25006882698358 131 134 152 2
39.86168002104852 -39.16010574223304 157.76810973321014 189 174 179 2
4.014167941133355 -31.825552976911442 163.77354672490188 164 153 156 4
27.839256514559462 25.6359628244837 162.41903589951113 172 185 133 2
15.804762388823466 -31.022914302998792 161.29352266967533 138 57 108 3
9.162593477941193 -22.660106116194175 161.30954844983725 115 117 155 2
17.001584477085895 -21.75471105168992 161.1028096239935 182 176 193 2
-16.29052104942426 -3.172463774072095 163.21972887159143 146 145 161 2
33.461823122072666 -3.3225159729395983 161.48996363969206 32 47 26 2
24.63508166937355 29.012374391509752 162.67709802813224 166 172 112 2
